# .PCD v0.7 - Point Cloud Data file format
VERSION 0.7
FIELDS x y z
SIZE 4 4 4
TYPE F F F
COUNT 1 1 1
WIDTH 1502
HEIGHT 1
VIEWPOINT 0 0 0 1 0 0 0
POINTS 1502
DATA ascii
89610.922 42288.566 -15.558841
89603.539 42270.891 -13.126258
89602.844 42289.465 -12.738554
89606.906 42289.371 -14.118928
89602.906 42290.055 -12.698464
89603.25 42273.09 -10.736151
89598.852 42289.613 -11.39572
89594.867 42289.926 -10.062313
89592.469 42281.305 -7.6513023
89591.195 42290.512 -8.8143778
89588.672 42295.844 -6.1233301
89589.117 42295.887 -6.2434492
89625.609 42267.133 -3.4166117
89627.57 42268.465 -3.2861762
89629.266 42269.164 -3.03545
89645.023 42279.316 -2.6018357
89622.531 42269.062 -3.3996215
89625.648 42270.82 -3.2716551
89626.945 42271.754 -2.835016
89638.914 42280.98 -2.3378167
89620.305 42270.113 -3.4100001
89621.195 42271.59 -3.3705757
89624.492 42273.676 -3.1181731
89625.281 42274.047 -2.7628319
89636.828 42282.195 -2.439693
89638.938 42281.855 -2.3764691
89640.633 42285.414 -2.5973625
89617.352 42272.688 -3.3707488
89619.898 42274.164 -3.3233929
89623.188 42276.039 -3.054132
89624.172 42275.898 -2.6589401
89638.227 42285.535 -2.4053593
89639.312 42287.297 -2.5654154
89608.414 42271.797 -2.7391829
89608.875 42272.023 -2.6719842
89615.453 42274.812 -3.3341405
89617.953 42276.465 -3.2978396
89619.906 42277.602 -3.2523029
89621.734 42279.801 -2.6139765
89633.484 42287.316 -2.5667048
89637.219 42290.477 -2.6057668
89607.203 42273.531 -3.0053444
89608.836 42272.777 -2.577529
89612.211 42276.227 -3.2965131
89613.758 42277.453 -3.2772212
89616.133 42278.676 -3.2565925
89619.898 42281.379 -3.0277977
89620.562 42281.316 -2.6463935
89630.859 42289.566 -2.7692306
89636.664 42290.805 -2.5976121
89605.602 42275.809 -2.9025459
89606.195 42275.602 -2.6064823
89609.719 42278.156 -3.2633836
89612.172 42280.02 -3.2295084
89614.922 42281.523 -3.2018142
89618.219 42283.234 -3.0302544
89619.125 42283.492 -2.6146832
89630.133 42291.52 -2.8557708
89631.312 42292.594 -2.6398296
89603.648 42277.887 -3.0096014
89605.219 42278.621 -2.8650112
89608.32 42280.832 -3.216187
89610.242 42282.141 -3.1881413
89612.969 42284.266 -3.1558261
89615.852 42286.363 -2.9393909
89618.539 42287.723 -2.6346467
89619.484 42289.531 -2.7036428
89621.352 42290.957 -2.6812274
89628.703 42294.379 -2.8898983
89630.016 42296.051 -2.7091472
89632.984 42297.875 -2.7869599
89599.523 42279.711 -3.0491672
89601.211 42280.18 -3.0976412
89603.992 42281.266 -3.1710544
89606.461 42283.242 -3.189404
89609.031 42285.109 -3.148674
89611.148 42285.996 -3.1230879
89614.781 42288.113 -2.9603715
89616.711 42289.012 -2.9274044
89619.344 42290.57 -2.897639
89621.383 42291.645 -2.9076705
89627.836 42295.816 -2.9716058
89630 42297.117 -2.8895574
89632.258 42298.668 -3.104573
89598.195 42281.27 -3.0859551
89599.656 42282.363 -3.1276035
89602.211 42284.02 -3.1787534
89604.492 42285.371 -3.1634769
89607.117 42287.254 -3.1354678
89609.914 42289.25 -3.0880837
89612.141 42290.703 -3.0463991
89615.445 42291.434 -3.080672
89624.164 42298.902 -2.8111181
89634.484 42306.586 -3.8692324
89595.992 42283.711 -3.1001
89598.281 42285.094 -3.1114798
89600.656 42286.477 -3.1806273
89603.242 42288.375 -3.1304581
89605.953 42290.043 -3.1047218
89607.906 42291.543 -3.0699105
89610.93 42293.441 -2.933497
89615.398 42295.945 -2.7275746
89625.445 42304.586 -3.0216858
89631.375 42307.906 -3.7748535
89633.578 42307.16 -3.8468895
89593.883 42286.039 -3.1296005
89596.414 42287.336 -3.1787429
89598.781 42288.875 -3.1566927
89601.328 42290.582 -3.1248846
89603.945 42292.344 -3.0842016
89606.469 42294.062 -3.0456696
89609.367 42295.859 -2.9180391
89617.078 42301.219 -2.8347721
89624.812 42305.543 -3.4082239
89630.078 42309.621 -3.7697337
89590.5 42287.535 -3.1709173
89592.156 42288.141 -3.181102
89594.695 42289.66 -3.1661103
89597.18 42291.496 -3.1299429
89599.922 42293.367 -3.1105282
89602.242 42294.855 -3.0847449
89604.734 42296.512 -3.0391099
89607.469 42298.039 -2.9488606
89609.625 42300.008 -2.9242897
89612.234 42301.562 -2.9669955
89615.047 42303.57 -3.0343971
89616.547 42304.648 -3.1469893
89622.391 42308.207 -3.5039654
89628.461 42312.023 -3.7748404
89588.703 42289.57 -3.1687171
89590.609 42290.727 -3.1692975
89593.156 42292.383 -3.1374774
89595.656 42294.234 -3.1000793
89598.062 42295.664 -3.0826001
89600.719 42297.355 -3.0700989
89603.211 42299.043 -3.0194571
89605.414 42300.605 -2.9542303
89607.812 42302.027 -2.9696169
89610.812 42304.398 -3.1118925
89612.883 42305.426 -3.1646056
89616.102 42307.438 -3.2912731
89620.906 42310.629 -3.5126286
89626.812 42314.516 -3.7864833
89630.469 42318.023 -3.9378695
89586.93 42291.703 -3.1439905
89589.109 42293.125 -3.1458673
89591.414 42295 -3.1075196
89594.031 42296.543 -3.0705411
89596.406 42298.145 -3.0498784
89598.953 42299.836 -3.0310993
89601.539 42301.234 -3.0047994
89603.758 42302.969 -2.9565513
89606.258 42304.871 -2.9900844
89609.773 42306.973 -3.1348941
89611.812 42308.234 -3.2035627
89615.078 42310.055 -3.3254693
89615.492 42311.16 -3.3800492
89619.039 42313.039 -3.5100241
89624.414 42316.582 -3.7575846
89628.422 42319.703 -3.9164445
89585.789 42293.73 -3.2829754
89587.648 42295.766 -3.3916798
89589.875 42297.402 -3.0803163
89592.352 42298.785 -3.0492613
89594.844 42300.633 -3.019922
89597.359 42302.324 -2.995414
89599.844 42304.043 -2.9827104
89602.375 42304.453 -2.9528565
89604.969 42307.082 -3.0157721
89606.344 42308.688 -3.0840552
89609.727 42310.516 -3.2097764
89613.914 42313.184 -3.3786488
89617.609 42315.684 -3.5411329
89622.195 42318.648 -3.7412767
89625.57 42322.121 -3.8950276
89626.648 42321.465 -3.911725
89583.297 42296.492 -3.0528367
89585.953 42298.477 -3.0784383
89588.336 42299.859 -3.0399761
89593.836 42302.859 -3.0082095
89596.117 42303.602 -2.9877539
89598.555 42305.031 -2.9856653
89603.656 42309.988 -3.0632124
89605.5 42311.211 -3.1350646
89608.336 42313.152 -3.2440441
89610.07 42314.07 -3.3036754
89612.234 42315.781 -3.399879
89615.547 42318.016 -3.5410109
89618.938 42321.285 -3.7106686
89620.578 42320.496 -3.7450647
89623.523 42323.348 -3.8640704
89626.125 42326.25 -3.9589813
89581.914 42298.887 -3.7918835
89584.062 42300.727 -3.1178372
89586.633 42302.402 -3.0745118
89588.281 42303.898 -3.0623555
89602.438 42312.328 -3.0882094
89603.555 42313.652 -3.1347876
89606.625 42315.664 -3.2613215
89609.836 42318.582 -3.4076822
89610.922 42317.781 -3.421217
89613.398 42320.156 -3.5368016
89617.836 42322.895 -3.7319026
89617.625 42323.5 -3.7479675
89620.875 42325.172 -3.8371768
89624.969 42327.562 -3.9699585
89573.328 42297.43 -3.0877597
89573.883 42297.457 -3.086509
89580.758 42302.266 -3.1569233
89582.398 42303.176 -3.1538014
89584.922 42304.883 -3.1248474
89587.383 42304.988 -3.0811596
89602.531 42316.535 -3.1767747
89605.094 42317.922 -3.2751529
89608.109 42320.191 -3.4036777
89610.656 42322.109 -3.508414
89612.195 42321.336 -3.5367351
89615.672 42325.156 -3.74264
89618.891 42327.363 -3.8547606
89622.531 42329.707 -3.9719419
89569.797 42297.594 -3.1228538
89576.234 42302.105 -3.1620123
89578.094 42303.996 -3.1776254
89580.523 42305.785 -3.1853924
89583.18 42307.258 -3.1667264
89601.43 42318.875 -3.2027135
89602.922 42320.422 -3.2722282
89605.438 42322.043 -3.3778675
89608.086 42323.754 -3.4812033
89611.117 42326.375 -3.6265886
89613.703 42326.215 -3.7144356
89616.812 42329.691 -3.8803127
89617.82 42328.578 -3.8675756
89620.703 42332.133 -4.0115523
89574.117 42305.824 -3.2496185
89576.469 42306.52 -3.2295985
89579.07 42308.031 -3.2186704
89581.383 42309.461 -3.2091274
89601.883 42323.148 -3.3166273
89604.414 42324.992 -3.422209
89606.641 42326.809 -3.4752245
89608.578 42327.777 -3.5465813
89611.82 42330.949 -3.6977067
89614.195 42331.059 -3.8362322
89619.062 42334.281 -4.050868
89576.078 42308.383 -3.2660022
89577.492 42310.469 -3.2630961
89578.703 42312.309 -3.2744267
89599.938 42325.242 -3.3236279
89602.227 42327.18 -3.429961
89605.695 42329.402 -3.4509702
89608.008 42331.898 -3.323952
89611.023 42331.898 -3.3792899
89578.453 42314.516 -3.3146801
89599.047 42328.148 -3.3777041
89601.133 42330.137 -3.4814737
89603.867 42331.648 -3.4828765
89610.031 42334.191 -3.3780642
89578.219 42317.102 -3.3520024
89602.852 42333.434 -3.4974134
89597.93 42335.145 -3.506393
89599.953 42336.895 -3.5643325
89602.914 42339.688 -3.7391005
89597.547 42336.691 -3.5446177
89598.688 42339.426 -3.5929039
89601.281 42340.137 -3.5917454
89603.547 42341.746 -3.6603584
89605.391 42342.93 -3.7786756
89610.117 42347.805 -3.8683882
89597.836 42340.996 -3.6078553
89608.773 42348.125 -3.7308388
89614.992 42261.547 0.11792779
89615.812 42262.148 -0.13883352
89614.305 42262.441 -0.10895681
89615.125 42263.414 -0.344594
89638.086 42279.688 -1.586113
89639.766 42281.227 -0.74072599
89624.742 42275.336 -2.2533059
89636.555 42281.953 -0.72455263
89638.242 42282.867 -0.7602818
89643.273 42284.754 -1.8088295
89610.75 42268.254 -1.3079554
89611.32 42268.219 -1.2572222
89624.578 42275.992 -2.2565913
89636.18 42283.23 -1.6509051
89637.133 42284.164 -1.1844842
89603.273 42266.77 0.31264496
89608.492 42271.699 -1.1886744
89608.852 42271.836 -0.39793777
89622.938 42279.691 -1.4860774
89602.039 42268.531 0.31786776
89608.016 42272.363 -0.75231433
89608.492 42273.305 -1.0350118
89621.031 42281.863 -2.2521453
89631.562 42290.023 -1.2508337
89632.867 42291.07 -1.0595107
89599.438 42271.562 0.018137932
89600.469 42273.598 -0.28579521
89605.562 42276.305 -2.4781456
89606.297 42276.867 -2.3122911
89619.539 42284.629 -2.2640023
89621.133 42285.801 -2.1377788
89630.758 42291.762 -0.56789637
89632.391 42292.91 -0.94828701
89633.797 42294.051 -0.4729476
89595.406 42273.684 -0.17677116
89598.32 42274.141 -0.56541157
89600.07 42274.273 -0.59194875
89605.148 42279.312 -1.3872198
89616.664 42286.57 -2.5386128
89617.711 42287.566 -1.423033
89619.547 42289.156 -1.3268793
89621.438 42290.664 -1.2265072
89628.992 42294.539 -1.4049194
89630.133 42295.344 -0.89332962
89633.047 42297.762 -0.60476017
89553.891 42249.672 0.0059738159
89572.945 42262.855 0.055588484
89575.922 42264.434 0.23144698
89578.281 42266.031 0.27779675
89580.836 42267.66 0.26579809
89583.25 42269.238 0.15209794
89585.141 42270.73 0.12357664
89588.609 42272.797 -0.45193005
89590.602 42273.527 -0.35445046
89593.93 42275.133 -0.74366212
89595.992 42275.16 -1.3590825
89604.5 42280.473 -0.024592876
89615.727 42287.98 -2.5230865
89617.953 42289.344 -0.91378021
89619.086 42290.262 -1.0427408
89628.203 42295.977 -1.6645551
89628.797 42296.496 -1.2408594
89556.312 42255.02 0.11226606
89573.758 42263.898 -0.16001654
89575.477 42265.09 -0.20611048
89577.664 42267.465 -0.47048926
89579.727 42269.238 -0.67019701
89582.273 42270.809 -0.79083872
89584.539 42272.484 -0.83732986
89587.383 42274.238 -0.93732762
89589.672 42276.383 -0.88048935
89591.641 42276.387 -0.94429016
89624.141 42298.867 -2.3647628
89555.617 42255.309 0.28083301
89577.469 42269.508 -1.364682
89579.039 42270.559 -1.5709269
89581.625 42272.238 -1.6478009
89583.977 42273.883 -1.6466639
89586.289 42276.301 -0.57206535
89588.203 42277.395 -0.28388548
89590.18 42278.254 0.29352379
89599.289 42285.48 -2.5337729
89611.469 42294.273 -2.6462836
89612.094 42294.75 -2.6006346
89615.117 42297.137 -2.6075673
89625.477 42304.652 -2.4311504
89563.242 42266.844 0.11677742
89573.375 42273.594 -0.029049873
89575.242 42274.672 -0.1196785
89581.57 42278.699 -0.52196956
89582.656 42279.863 -0.023587227
89586.18 42281.715 -0.62399483
89609.805 42296.652 -2.6646314
89610.945 42297.273 -2.5857291
89613.797 42298.793 -2.5903749
89616.398 42301.562 -1.9481372
89617.508 42301.895 -2.7672775
89625.5 42304.801 -2.4614215
89560.805 42267.535 0.10867834
89562.445 42268.828 -0.011089325
89563.852 42269.633 0.08763957
89573.289 42275.066 0.0096011162
89577.047 42277.258 -1.392913
89580.797 42280.453 -0.053344727
89582.172 42281.438 -0.32662559
89590.242 42286.633 -0.62984228
89608.75 42298.195 -2.7143373
89609.805 42299.484 -2.6800053
89612.398 42301.242 -2.7567818
89616.312 42302.523 -1.4017493
89616.273 42304.504 -2.7168961
89566.047 42275.395 -0.20803523
89567.805 42276.617 -0.092835426
89570.695 42278.051 -0.21612573
89582.062 42289.914 -2.800334
89600.242 42305.469 -2.9673307
89602.062 42305.898 -2.9456327
89527.516 42261.477 -0.23920584
89529.719 42262.926 -0.75073624
89532.148 42264.41 -0.63620853
89534.82 42266.297 -0.49639606
89537.57 42267.941 -0.37296247
89540.367 42269.828 -0.57527304
89542.359 42271.113 -0.54450631
89545.133 42272.918 -0.78828049
89547.406 42274.426 -0.9248116
89550.102 42276.094 -0.82126713
89552.586 42277.695 -1.0638196
89555.062 42279.145 -1.0914717
89558.18 42280.957 -0.91225576
89559.883 42282.418 -1.3523372
89562.641 42284.516 -1.1322856
89564.961 42285.594 -0.88082528
89567.477 42287.254 -1.3241814
89570.141 42289.141 -1.3890117
89572.695 42290.691 -1.2372375
89574.891 42292.375 -1.4898646
89577.703 42294.066 -1.3648164
89579.422 42295.113 -1.4271184
89583.227 42296.473 -1.2929637
89588.906 42300.797 -2.8989975
89590.117 42301.953 -2.5085545
89592.898 42303.996 -3.002769
89595.539 42305.012 -2.9832838
89598.242 42306.441 -2.9805596
89600.461 42308.008 -2.9623411
89602.211 42308.797 -3.0013049
89526.875 42261.984 -1.5836627
89529.492 42263.66 -1.6198622
89531.82 42265.418 -1.6226962
89533.961 42266.633 -1.5085899
89536.844 42268.781 -1.7604673
89539.422 42270.34 -1.7526767
89541.812 42271.891 -1.8784834
89544.391 42273.512 -1.8420304
89546.891 42275.406 -2.0429978
89549.562 42276.961 -1.8984187
89551.93 42278.738 -2.2192254
89554.32 42280.445 -2.2643604
89557.016 42282.199 -2.1187594
89559.398 42283.645 -2.1717672
89561.844 42285.277 -2.3237994
89564.781 42286.785 -2.0733986
89567.102 42288.301 -1.8507973
89569.711 42290.07 -1.6627791
89572.172 42291.598 -1.7030778
89574.695 42293.254 -1.822684
89576.906 42294.973 -1.6531652
89578.648 42295.898 -1.6634717
89582.219 42297.988 -1.2314129
89587.953 42302.223 -2.923728
89589.055 42304.062 -2.9929304
89591.594 42305.691 -3.0167108
89593.969 42307.281 -3.0000176
89596.453 42308.988 -2.989172
89598.82 42310.477 -2.9657173
89601.078 42313.172 -3.0543721
89524.805 42265.266 -2.2687607
89526.344 42265.688 -2.2985678
89529.016 42268.215 -2.3493402
89531.727 42269.809 -2.3756027
89534.5 42271.445 -2.4132149
89537.562 42273.598 -2.4705803
89540.039 42275.574 -2.5210655
89542.453 42276.816 -2.5484195
89544.914 42278.316 -2.5856853
89547.398 42280.117 -2.6229634
89549.781 42281.789 -2.6719995
89552.422 42283.402 -2.7117667
89554.859 42284.98 -2.7488284
89557.477 42286.863 -2.7953427
89559.688 42288.148 -2.8286939
89562.5 42289.926 -2.8674245
89564.961 42291.773 -2.9129691
89567.391 42293.367 -2.9601231
89569.922 42295.035 -3.011672
89572.438 42296.625 -3.0378487
89575.359 42297.766 -1.8353831
89575.461 42300.375 -1.6368246
89586.102 42305.707 -3.0995474
89587.516 42306.586 -3.0761006
89589.875 42308.25 -3.0529022
89592.367 42309.793 -3.0338268
89594.789 42311.496 -3.0126293
89597.125 42312.965 -2.9819062
89599.5 42314.543 -3.0342088
89600.969 42316.246 -3.1233778
89523.469 42267.57 -2.3382754
89526.633 42270.059 -2.401629
89528.992 42271.41 -2.4285438
89531.422 42273.246 -2.453588
89532.758 42274.102 -2.5010717
89535.422 42275.859 -2.5358503
89538.188 42277.691 -2.5844376
89540.828 42279.375 -2.6171865
89543.18 42281.113 -2.660799
89545.836 42282.672 -2.6959214
89548.305 42284.328 -2.739346
89550.797 42285.891 -2.7784793
89553.141 42287.562 -2.8179202
89555.797 42289.285 -2.8622451
89557.898 42290.539 -2.8921733
89560.367 42292.297 -2.9250393
89563.062 42294.23 -2.9736354
89565.914 42295.883 -3.0329266
89568.078 42297.09 -3.0667768
89570.336 42297.457 -3.0826347
89574.156 42300.359 -1.9329793
89575.586 42301.535 -2.2267041
89583.977 42308.379 -3.1603887
89585.961 42309.141 -3.1281731
89588.109 42310.621 -3.1027389
89590.57 42312.23 -3.0769353
89593.094 42313.902 -3.0513718
89595.578 42315.516 -3.0251815
89598.219 42317.348 -3.0806279
89600.188 42319.258 -3.1801422
89522.133 42269.867 -2.4095297
89524.156 42272.406 -1.7763196
89526.789 42273.602 -2.2444844
89529.172 42275.262 -2.3010778
89531.719 42276.688 -2.4436796
89533.867 42279.227 -1.4872837
89536.617 42280.188 -2.3631732
89538.977 42281.93 -2.2589395
89541.641 42284.188 -1.8079842
89543.75 42285.676 -1.842091
89546.672 42286.91 -2.6002922
89548.828 42288.746 -2.1708956
89551.438 42290.078 -2.6617582
89553.992 42291.809 -2.6728866
89556.398 42293.965 -2.1315057
89558.227 42295.664 -1.5358912
89561.258 42297.242 -2.3681552
89563.5 42298.855 -2.4023387
89566.117 42300.59 -2.5840704
89568.391 42302.555 -2.4433353
89570.508 42304.074 -2.3292367
89573.164 42305.816 -2.8477912
89574.922 42307.258 -3.0698981
89581.812 42310.578 -3.2109897
89584.258 42311.672 -3.1800132
89586.5 42313.117 -3.1528792
89588.961 42314.758 -3.1225586
89591.492 42316.367 -3.0991416
89594.008 42318.09 -3.0884135
89596.273 42319.633 -3.1092865
89598.828 42321.547 -3.2009418
89607.094 42328.406 -3.2373939
89607.453 42328.48 -3.2506263
89527.969 42276.586 -0.89255524
89530.688 42278.789 -1.1471815
89532.328 42279.359 -1.7268746
89537.875 42283.246 -1.4811612
89541.578 42285.535 -1.8859209
89543.188 42286.695 -1.1020417
89544.688 42287.875 -1.2058655
89547.664 42289.762 -1.0862679
89550.969 42291.797 -0.98304939
89552.07 42292.418 -1.5304803
89557.57 42296.668 -1.1328485
89559.742 42298.504 -1.4655886
89562.828 42300.402 -1.6687535
89564.859 42301.852 -1.6535217
89568.031 42303.242 -2.1957757
89569.859 42305.621 -1.642462
89572.82 42306.953 -2.2088552
89574.977 42308.68 -1.5278915
89577.781 42310.949 -3.2485232
89580.219 42312.551 -3.2480798
89582.5 42314.094 -3.2285872
89584.961 42315.645 -3.2057087
89587.414 42317.312 -3.1810241
89589.852 42318.98 -3.1547508
89592.359 42320.488 -3.1442606
89594.688 42322.215 -3.1583209
89597 42323.344 -3.1952496
89598.305 42326 -3.3049304
89606.062 42329.805 -3.261492
89607.492 42331.309 -3.2854023
89611.078 42332.348 -1.9640782
89543.195 42293.301 -2.591769
89545.383 42294.129 -2.6238508
89548.016 42295.664 -2.6023922
89551.109 42296.527 -2.3407891
89553.555 42298.078 -2.4061935
89555.859 42299.73 -2.5374687
89558.398 42301.535 -2.5641603
89560.773 42303.305 -2.7058501
89563.281 42305.074 -2.8259821
89565.656 42306.793 -2.9805782
89568.43 42308.34 -3.0047894
89570.836 42309.875 -3.1256731
89573.055 42311.684 -3.220634
89575.789 42313.18 -3.2703307
89578.688 42315.168 -3.301446
89580.695 42316.402 -3.2782941
89583.266 42318.184 -3.2472742
89585.789 42319.766 -3.2234478
89588.273 42321.434 -3.2102451
89590.766 42323.086 -3.195255
89593.367 42325.543 -3.0716031
89595.078 42326.414 -2.7361994
89597.812 42327.555 -3.3283644
89604.367 42332.281 -3.302639
89605.93 42332.84 -3.2815752
89610.039 42334.207 -1.8347955
89537.023 42292.051 -0.53212357
89539.711 42292.492 -1.3009189
89541.711 42293.77 -1.5597528
89544.523 42295.766 -1.5162649
89546.742 42297.367 -1.4637204
89549.062 42299.473 -1.6355655
89550.859 42301.672 -1.7468762
89553.5 42302.871 -2.2229581
89556.586 42304.324 -2.7859266
89558.711 42305.953 -2.8255296
89561.719 42308.352 -2.3092775
89563.25 42309.805 -1.5569578
89566.711 42310.645 -3.0836229
89569.055 42312.395 -3.1575742
89571.641 42314.082 -3.2517591
89573.875 42316.082 -3.3054392
89577.047 42317.289 -3.2267208
89579.047 42319.035 -3.3218174
89581.875 42320.438 -3.2813046
89584.07 42322.324 -3.2656944
89586.672 42323.945 -3.2532396
89589.117 42325.566 -3.2300022
89591.789 42326.922 -3.1176722
89593.305 42329.391 -3.2543237
89595.836 42331.508 -3.3810477
89603.289 42333.797 -3.3282766
89603.633 42334.148 -3.3132544
89535.922 42293.219 -0.97724223
89540.867 42295.844 -0.9663372
89543.969 42298.102 -0.57839274
89544.906 42298.945 -0.75150967
89548.383 42301.195 -0.95580697
89550.406 42303.109 -1.3590252
89552.383 42305.043 -1.7623467
89554.062 42306.945 -2.1691184
89557.344 42308.164 -2.7931182
89561.031 42310.129 -1.4616065
89562.883 42311.32 -1.709803
89564.695 42313.34 -2.5134001
89566.758 42315.121 -2.8574555
89569.875 42316.934 -3.2917035
89572.508 42318.293 -3.3129103
89574.617 42319.773 -3.32445
89577.914 42321.422 -3.3564935
89579.641 42323.203 -3.3300927
89582.672 42324.555 -3.2976179
89585.062 42326.398 -3.2850161
89587.492 42328.129 -3.259459
89589.828 42329.719 -3.2375553
89592.836 42331.68 -3.3129239
89595.156 42333.512 -3.4006891
89596.508 42335.754 -3.4705045
89535.781 42297.211 -0.650383
89538.625 42297.75 -0.8187623
89549.844 42305.668 -1.5284345
89551.156 42307.016 -1.1019497
89553.812 42308.801 -1.6698453
89555.273 42311.137 -1.927828
89558.031 42311.102 -2.6517413
89561.57 42313.117 -1.8083148
89563.57 42315.496 -1.8136494
89565.797 42317.191 -2.421047
89568.375 42318.875 -3.3097978
89570.82 42320.66 -3.3353014
89573.344 42322.305 -3.3123691
89575.18 42323.785 -2.4424512
89578.836 42325.633 -3.3703768
89580.789 42327.367 -3.3516552
89582.961 42329.133 -3.3230162
89586.18 42330.363 -3.2826681
89588.172 42332.656 -2.3726902
89590.883 42333.867 -2.3872135
89592.531 42334.547 -3.0505846
89595.664 42336.473 -3.4884045
89599.117 42339.895 -3.396713
89600.805 42341.09 -3.220618
89602.164 42342.094 -3.1650026
89604.469 42343.742 -1.9722486
89610.18 42347.707 -3.1271217
89533.523 42300.57 -0.64574814
89549.258 42310.648 -0.94967079
89551.945 42311.191 -1.0018809
89555.078 42312.832 -1.2963161
89556.32 42313.906 -2.0815454
89557.492 42317.23 -1.5432112
89563.039 42317.453 -1.5158944
89564.844 42319.91 -2.0318344
89566.492 42321.438 -3.0684295
89569.188 42323.129 -3.361146
89571.703 42325.125 -3.2863357
89573.539 42326.23 -3.0882876
89576.945 42328.168 -3.4395013
89579.18 42329.789 -3.4088507
89581.703 42331.48 -3.3618555
89584.336 42333.812 -3.2669024
89586.5 42334.621 -1.8923063
89589.758 42336.324 -1.1516035
89598.031 42341.547 -3.3830075
89599.336 42343.168 -2.9652925
89601.078 42344.195 -2.2322142
89607.922 42348.871 -3.4048083
89608.016 42348.875 -3.4062991
89551.742 42313.672 -2.0573711
89553 42314.652 -2.1019626
89558.164 42319.531 -2.0330379
89558.609 42321 -1.8190371
89563.422 42321.344 -1.8831151
89565.398 42324.016 -2.8637919
89567.516 42325.66 -3.3913047
89570.266 42327.953 -2.8477471
89571.734 42328.668 -3.029942
89575.078 42330.719 -3.5183566
89577.789 42332.285 -3.4692564
89579.984 42333.973 -3.4224596
89583.117 42336 -3.2820554
89584.898 42337.434 -2.6558869
89586.742 42338.758 -2.1641803
89598.469 42345.547 -2.1056409
89599.5 42346.684 -1.9254857
89556.695 42322.391 -0.92380047
89558.688 42322.855 -1.0783153
89559.656 42325.469 -1.7393521
89564.781 42326.031 -2.8855948
89566.047 42328.18 -3.23523
89568.711 42330.152 -3.015872
89570.586 42330.359 -3.1133809
89573.898 42333.23 -3.5781837
89575.633 42334.871 -3.5480971
89578.391 42336.328 -3.4896452
89581.398 42338.469 -3.3419015
89583.281 42339.945 -2.139842
89585.078 42341.348 -1.6302729
89598.828 42348.52 -2.2187004
89529.539 42309.582 -0.72321677
89531.047 42310.109 -0.95994854
89539.594 42313.66 -0.88111734
89542.469 42315.508 -0.84339452
89544.984 42317.285 -0.91186762
89546.734 42318.785 -0.97181439
89555.156 42324.262 -1.0169654
89555.906 42325.059 -0.92737961
89559.398 42327.125 -1.277699
89560.273 42329.367 -2.0114889
89564.758 42330.758 -3.4899778
89566.867 42332.5 -3.4228637
89568.141 42333.738 -3.2438743
89573.32 42335.559 -3.6197882
89574.398 42337.375 -3.6124501
89576.531 42338.973 -3.5779736
89579.891 42340.914 -2.8870232
89581.57 42342.027 -2.4544826
89583.148 42344.004 -1.3147287
89531.297 42311.488 -0.87200189
89532.359 42312.312 -0.85532904
89558.398 42330.516 -1.3385384
89560.109 42331.613 -1.495506
89563.312 42333.496 -3.4621363
89565.453 42335.484 -2.9014933
89567.953 42336.82 -2.0137005
89569.641 42337.238 -2.0574238
89573.039 42339.906 -3.6710494
89574.516 42341.227 -3.652565
89577.977 42343.309 -3.4827361
89580.203 42345.059 -2.3285747
89582.281 42345.836 -1.6409864
89593.633 42355.469 -1.6604233
89551.703 42330.672 -1.1506667
89558.273 42333.617 -1.2973084
89562.328 42336.184 -3.6201007
89563.953 42337.66 -2.8734975
89566.188 42338.953 -2.1220164
89568.57 42339.691 -3.5475893
89571.227 42342.391 -3.7368126
89573.336 42344.047 -3.6869633
89576.688 42346.016 -3.0881188
89578.508 42347.27 -1.9947228
89580.109 42348.906 -1.6295283
89592.406 42355.59 -1.3914421
89593 42355.887 -1.8171272
89557.727 42336.621 -1.6657476
89562.578 42340.492 -2.4774823
89564.453 42341.594 -1.8926992
89570.078 42344.66 -3.775975
89571.703 42346.395 -3.7331834
89574.891 42348.633 -3.3272772
89576.93 42349.848 -2.0610619
89578.258 42351.098 -2.2400916
89560.961 42342.504 -2.6599
89562.617 42343.957 -2.0736556
89570.633 42349.137 -3.7810016
89573.266 42350.996 -3.3938508
89574.812 42352.07 -3.0601721
89577.273 42353.559 -2.7560334
89559.516 42344.734 -2.1748435
89560.922 42345.137 -2.3589544
89569.898 42351.082 -3.8095157
89571.641 42353.578 -3.3684843
89573.086 42353.785 -2.0834103
89576.57 42357.172 -2.781605
89557.922 42347.012 -2.9967189
89570.289 42355.883 -3.3924608
89571.148 42356.344 -3.3659961
89575.375 42359.805 -2.8703194
89556.281 42350.453 -2.1409233
89556.57 42350.574 -2.2774863
89571.125 42360.414 -2.67242
89583.508 42369.441 -1.3348567
89584.125 42369.586 -2.1300247
89553.945 42353.328 -2.1506994
89554.953 42353.676 -2.7295098
89558.828 42355.91 -4.0811949
89569.805 42362.68 -2.7122014
89569.773 42363.68 -2.2181022
89580.18 42371.66 -2.647275
89552.289 42355.422 -1.680421
89553.602 42356.383 -1.989472
89579.836 42372.57 -2.666934
89553.703 42358.246 -2.2901003
89577.438 42376.133 -1.8682404
89578.977 42376.621 -1.6436483
89614.984 42261.797 1.3355536
89615.664 42262.156 1.50067
89608.211 42259.43 1.1431351
89614.234 42262.535 1.281703
89615.273 42263.219 1.4323478
89639.688 42281.16 0.770087
89637.18 42282.609 0.9418087
89637.984 42282.996 1.0091486
89604.352 42264.777 0.89612103
89602.953 42267.285 1.9576359
89608.852 42272.07 1.4047718
89573.891 42252.75 2.5435619
89575.938 42254.125 3.2179456
89577.078 42254.883 3.4589605
89602.234 42268.516 0.90435982
89607.531 42272.844 1.5734525
89608.242 42273.844 2.2444897
89573.914 42252.828 2.5016208
89576.078 42254.281 2.28016
89578 42255.582 2.2488861
89580.438 42257.227 2.252171
89582.953 42258.93 2.2727275
89585.414 42260.594 2.1990581
89587.125 42261.758 2.1747417
89589.625 42263.461 2.4876027
89593.266 42265.906 2.6847129
89595.609 42267.496 1.8427138
89596.633 42268.188 1.3778028
89599.289 42272.863 1.0106506
89600.352 42273.621 0.98442125
89630.375 42292.848 1.2393723
89631.539 42293.312 1.3159952
89633.383 42294.875 0.93376064
89577.102 42261.98 0.53025723
89583.109 42265.359 0.61137462
89595.141 42273.285 0.48630047
89599.227 42273.664 1.2291403
89599.969 42274.145 0.97848034
89605.18 42279.809 2.0585957
89607.742 42281.332 2.9177599
89613.68 42285.074 3.0285916
89615.312 42286.383 3.0037231
89616.703 42287.535 2.0273924
89619.586 42289.352 0.74950981
89621.883 42290.941 2.2839432
89624.602 42292.582 2.8252864
89629.688 42293.965 1.1499624
89630.844 42295.203 1.4048615
89632.906 42297.566 1.3830733
89635.336 42299.965 2.5254788
89636.438 42300.805 2.5226068
89640.461 42303.496 2.1919632
89567.469 42258.934 2.4098768
89573.312 42262.691 2.3021278
89575.812 42263.613 0.4742527
89578.344 42265.445 0.48319983
89580.289 42267.07 0.5607872
89584.484 42268.422 0.53598285
89588.695 42271.992 2.0197306
89590.828 42274.32 1.2601757
89594.57 42275.047 1.2788105
89595.742 42274.941 1.6829815
89604.578 42280.359 0.52991819
89619.078 42290.238 0.49087954
89635.688 42300.988 2.500947
89636.195 42301.305 2.4144397
89640.156 42304.07 2.1923208
89540 42244.156 2.2984624
89541.016 42245.266 2.2336793
89554.977 42252.758 1.9620037
89556.016 42254.895 1.5074954
89560.195 42257.074 0.63777041
89563.273 42257.914 3.2558122
89563.648 42260.207 3.0509968
89566.789 42261.242 2.7910724
89567.914 42263.07 2.0654073
89572.789 42264.098 2.33147
89580 42267.816 0.61014318
89584.836 42274.133 1.0147772
89587.664 42274.758 1.8673043
89589.891 42276.371 1.4127617
89590.961 42277.301 1.4352493
89541.266 42246.133 2.3299007
89542.438 42247.23 2.9271727
89555.695 42255.535 1.82651
89559.328 42259.164 2.7050467
89560.539 42260.414 1.7550287
89563.844 42261.586 2.5877523
89565.344 42263.844 2.2998676
89567.758 42265.566 2.3451958
89570.047 42266.109 2.5408201
89584.461 42275.266 1.202065
89585.867 42277.211 1.4222088
89588.094 42278.113 1.3894982
89590.141 42278.258 1.3082705
89563.68 42266.68 1.5941186
89564.656 42267.914 1.8813515
89571.703 42272.695 1.4854345
89573.125 42273.332 1.352911
89575.234 42274.723 0.79865217
89581.781 42279.418 1.3891482
89582.742 42279.906 0.9497757
89616.398 42302.344 1.5350957
89533.844 42248.969 2.3702946
89560.828 42267.379 1.1499906
89561.875 42268.984 1.6600657
89563.867 42269.512 1.7327318
89570.562 42273.938 1.4605408
89572.438 42275.254 1.5627708
89580.633 42280.566 1.2305508
89582.062 42281.809 1.0739222
89590.227 42286.625 0.95653057
89612.82 42300.844 2.7428088
89616.164 42302.359 1.8724227
89561.836 42270.012 2.4267445
89566.117 42275.414 0.40647745
89567.633 42276.488 0.41507649
89570.672 42278.098 0.39180946
89580.078 42282.043 1.9655552
89580.992 42282.715 1.5664229
89588.812 42288.43 2.8481655
89584.664 42294.578 2.9608402
89527.562 42261.094 0.98613024
89530.023 42262.828 0.7929008
89532.547 42264.414 0.78177071
89535.5 42266.422 0.66859818
89537.688 42267.789 0.48957849
89540.648 42269.602 0.6875329
89542.062 42270.387 0.60507965
89545.172 42272.316 0.66614962
89547.727 42274.094 0.43618631
89550.312 42275.891 0.51526499
89552.711 42277.023 0.34086514
89555.32 42278.684 0.17927146
89558.695 42280.609 0.1719718
89559.75 42280.391 0.11987996
89563.281 42285.039 0.79930639
89564.93 42285.391 0.7582233
89583.25 42296.492 0.61047029
89531.633 42264.484 0.36354971
89534.891 42266.727 0.1701169
89549.781 42276.508 0.45817947
89564.242 42286.188 2.9274445
89582.234 42297.992 0.56264663
89536.672 42274.227 2.7918568
89535.516 42275.949 2.7870584
89523.938 42272.695 0.941185
89527.32 42274.973 2.6059041
89528.469 42275.527 1.7777786
89533.703 42279.465 0.46685505
89536.922 42281.566 1.4580603
89539.039 42282.5 1.4893885
89541.375 42284.734 1.2370086
89543.18 42286.234 -0.099622726
89546.961 42288.652 1.7157636
89547.898 42289.203 0.68058324
89556.781 42294.793 0.56195498
89557.93 42295.766 0.44083738
89608.664 42329.473 2.0938816
89528.711 42276.969 1.32832
89535.914 42282.832 1.8807907
89538.438 42284.164 1.5314341
89539.211 42284.348 1.1469884
89546.773 42288.961 1.6437683
89547.531 42289.836 1.0180097
89551.094 42291.98 -0.11685109
89557.523 42296.672 0.40287089
89559.008 42298.488 0.27430439
89561.609 42300.5 0.072785139
89569.352 42306.238 -0.12066412
89575.312 42308.93 0.17069364
89608.25 42329.824 2.3437061
89611.109 42332.355 1.0857129
89528.555 42281.078 0.80610585
89560.508 42302.25 0.056859493
89610.055 42334.254 1.0655165
89534.062 42290.781 0.43586397
89537.008 42291.715 1.6079111
89539.469 42292.688 0.48248982
89542.203 42294.527 1.0165248
89544.672 42296.051 0.70888591
89546.953 42297.844 0.72138
89548.695 42299.68 0.45317864
89549.711 42301.324 0.1221602
89562.016 42309.363 -0.24444985
89563.102 42310.055 -0.16666293
89544.289 42298.215 -0.32640123
89546.172 42299.543 1.2389688
89548.266 42301.434 0.48419929
89550 42303.492 0.34038496
89552 42305.871 0.26872134
89553.047 42307.148 0.11856389
89561.484 42309.746 -0.15622854
89562.844 42311.035 0.0053243637
89535.773 42297.324 -0.37361503
89549.562 42305.453 0.55869031
89551.328 42307.188 0.55897164
89553.438 42308.875 0.30123401
89554.75 42311.312 0.45514822
89561.961 42313.57 0.038879633
89562.516 42314.531 -0.02133131
89575.344 42323.527 0.11842036
89588.039 42333.691 -0.34212446
89591.43 42334.938 0.67173195
89593.672 42337.297 2.2971983
89594.031 42337.348 2.1638365
89604.852 42344.043 1.2124295
89607.438 42345.984 2.0741949
89533.578 42300.477 -0.043597221
89549.398 42310.523 0.28167415
89552.469 42311.551 0.17852354
89554.68 42312.875 0.30943847
89555.609 42314.207 0.87559319
89585.398 42335.312 0.44169617
89590.219 42336.656 0.49612284
89548.93 42311.918 0.22098637
89553.125 42314.855 0.82735491
89555.016 42316.152 2.3748627
89557.234 42320.062 0.71370745
89570.43 42328.703 0.10549855
89584.836 42339.039 2.0330544
89585.602 42339.555 2.2181435
89598.016 42346.305 -0.59137893
89556.602 42322.125 0.45516753
89558.438 42322.82 0.21834683
89559.305 42325.559 -0.044167757
89566.961 42328.848 -0.30299425
89567.719 42329.34 -0.32936692
89581.305 42339.203 1.0543385
89583.375 42339.93 0.61110401
89585.469 42341.355 0.51153302
89524.875 42304.355 2.0134158
89526.055 42306.367 1.5510201
89528.43 42308.191 1.0676622
89530.977 42310.176 0.50619435
89533.82 42310.188 1.5323091
89539.344 42315.41 -0.13497925
89541.141 42317.074 0.44753361
89544.094 42318.383 0.14329863
89546.008 42319.109 -0.20298815
89555.414 42323.527 0.6642046
89557.562 42325.535 1.4743347
89559.102 42327.539 0.30294418
89580.406 42340.863 0.15639496
89581.578 42342.184 0.25529671
89583.914 42343.887 0.31856084
89531.352 42311.582 0.30782795
89532.805 42312.59 -0.082425833
89534.297 42313.609 -0.45588064
89538.719 42315.789 -0.24702406
89540.195 42316.781 -0.023593426
89543.836 42319.207 0.35310578
89545.43 42320.285 0.26135731
89558.562 42329.859 0.68888021
89559.648 42331.879 0.41179109
89568.164 42336.785 -0.37864804
89569.594 42337.195 -0.34806204
89579.625 42345.707 0.58215022
89582.031 42346.344 -0.60223246
89551.742 42330.367 0.23536587
89552.453 42330.215 -0.007776022
89555.914 42334.152 1.3899932
89558.867 42333.902 0.26838017
89561.133 42337.348 1.069344
89562.336 42338.043 1.183701
89565.492 42339.152 0.010315895
89576.875 42346.598 0.46979594
89577.734 42346.68 0.57564545
89580.648 42349.23 0.047283888
89592.305 42355.148 -0.5222609
89593.094 42356.07 -0.53699636
89551.75 42332.09 0.75949717
89557.383 42336.496 0.11190557
89559.812 42338.859 0.99525023
89562 42340.508 0.29292989
89563.617 42342.031 0.22632861
89569.469 42344.094 2.1412721
89575.867 42347.777 0.053041458
89576.664 42349.559 0.4961555
89579.5 42351.066 -0.1266036
89558.797 42340.621 0.36377382
89559.469 42342.359 0.27271652
89563.18 42343.738 0.67515087
89559.633 42344.738 0.040611744
89561.016 42345.207 0.4955287
89564.422 42347.695 1.7528315
89566.398 42349.102 1.7280278
89568.812 42350.746 1.7788386
89571.719 42352.996 1.4425688
89573.352 42353.805 0.48352528
89575.688 42355.141 1.9815946
89555.656 42345.957 1.087153
89556.438 42346.258 1.1064563
89585.617 42367.938 1.6586885
89595.398 42371.727 1.6524549
89556.188 42349.953 -0.43522263
89556.625 42350.641 -0.67943692
89583.352 42369.215 -0.9395268
89585.75 42371.75 -0.65747404
89553.961 42352.969 0.7837534
89553.195 42355.191 -1.0045724
89553.461 42356.199 -0.67346025
89539.805 42348.941 -0.5927825
89576.844 42375.883 0.3572731
89579.586 42376.957 -0.13691378
89547.336 42230.992 4.7252474
89559.125 42242.824 5.8512239
89559.742 42243.25 5.7894049
89566.133 42247.559 3.6858244
89572.93 42252.121 4.9651642
89575.844 42254.086 5.2033463
89577.617 42255.266 5.0667906
89579.414 42256.473 5.2358236
89576.078 42254.297 4.5732102
89577.969 42255.562 4.4840655
89580.438 42257.234 4.5314002
89582.898 42258.895 4.6845818
89585.391 42260.574 4.6785855
89586.977 42261.645 4.713202
89591.141 42264.465 4.3046036
89593.328 42265.953 4.0864758
89594.539 42266.77 4.4462872
89605.047 42279.703 4.453681
89562.273 42254.621 4.4462376
89562.719 42255.453 5.0171127
89589.164 42272.703 4.5616999
89590.602 42273.855 3.9862995
89541.75 42245.824 4.9065552
89555.195 42253.148 5.3515377
89555.523 42254.703 4.2960367
89562.969 42257.66 4.6864433
89563.617 42259.848 5.0228605
89567.414 42260.656 4.620296
89569.312 42263.824 6.1346445
89571.266 42264.203 4.4038634
89587.742 42275.164 4.9258137
89589.586 42276.367 4.7976198
89541.508 42246.453 4.1356983
89542.367 42247.031 3.9125714
89555.336 42254.984 3.9255729
89561.938 42259.801 6.3647022
89563.039 42260.754 4.5686874
89565.547 42263.691 4.0932312
89568.016 42265.07 4.2967496
89569.891 42265.816 3.5312548
89586.227 42276.926 4.4468999
89587.711 42277.652 3.9559493
89563.734 42267.531 3.6389971
89572.875 42273.492 3.3545818
89562.773 42269.078 3.8560286
89563.805 42269.16 3.6039815
89570.445 42274.488 4.2495575
89571.883 42275.27 3.7278495
89580.273 42281.398 3.8691373
89581.977 42281.398 3.8453903
89590.086 42286.527 4.4654307
89585.203 42293.676 3.2281232
89565.281 42285.227 3.7743039
89562.852 42285.699 3.1696033
89563.727 42287.363 3.6364231
89536.727 42274.277 3.7463899
89561.977 42289.953 3.3790011
89535.617 42276 3.74335
89559.883 42292.102 3.3302546
89527.008 42275.141 3.016294
89534.469 42278.16 3.528255
89536.75 42281.789 3.4693069
89538.898 42282.469 3.8172016
89541.383 42284.785 3.7596798
89548.164 42289.504 2.8461952
89558.383 42294.703 3.2256856
89536.266 42282.641 3.4159231
89538.391 42284.082 3.9036622
89547.367 42289.82 3.1143513
89557.516 42296.688 3.174448
89610.008 42334.23 2.8659759
89536.195 42291.68 2.8951468
89576.188 42324.695 4.2458911
89577.945 42325.371 3.6066046
89591.453 42334.996 2.7436991
89593.109 42336.066 2.7320175
89594.984 42337.328 2.7700262
89549.18 42310.785 2.9463367
89554.109 42312.688 3.0445113
89574.242 42327.734 5.2276707
89575.805 42327.551 5.2257423
89578.375 42331.219 4.4228363
89585.086 42335.453 3.1153212
89555.062 42317.07 2.4812689
89567.641 42325.062 4.6818051
89570.086 42328.094 5.3207474
89572.312 42327.984 5.2672043
89577.406 42331.418 4.4227085
89584.977 42338.816 2.9678483
89585.773 42339.57 2.6870356
89556.891 42322.641 2.8442621
89557.203 42322.816 2.8321271
89568.352 42331.543 4.4176102
89569.281 42331.613 4.4071779
89575.969 42336.566 5.3136148
89577.883 42337.645 4.3479667
89581.344 42339.52 2.8428922
89583.227 42339.578 3.3882637
89585.594 42341.168 3.2363558
89519.711 42301.445 5.3367863
89521.477 42301.863 5.2639704
89524.586 42304.105 2.5889935
89525.859 42304.867 2.4525566
89529.43 42308.449 4.43543
89531.43 42309.066 4.4418135
89533.43 42309.945 4.6767302
89537.039 42313.293 3.7378349
89539.289 42313.879 4.6768913
89541.531 42316.398 4.4239497
89544.297 42317.273 4.7903595
89546.883 42319.672 4.3917875
89548.414 42320.48 4.3830438
89557.688 42325.574 2.48562
89558.391 42328.645 2.7571678
89567.586 42331.422 4.4195313
89569.609 42333.648 4.7715974
89572.531 42336.672 5.2977581
89574.219 42336.621 5.2978811
89576.828 42338.895 4.3761854
89580.625 42340.781 3.2345781
89581.211 42342.352 3.5037036
89584.219 42343.895 2.6680822
89546.258 42321.105 3.9049821
89558.445 42329.621 2.8122497
89559.008 42332.281 2.5719767
89568.312 42337.809 4.2239947
89569.312 42337.902 4.2197766
89572.422 42340.938 4.6372385
89575.133 42340.91 4.6457586
89577.039 42343.5 4.0968728
89579.727 42345.766 2.704318
89580.938 42347.168 3.0538707
89544.555 42324.895 4.560607
89545.516 42325.805 4.514257
89552.977 42330.91 2.5201502
89558.25 42333.09 2.6688709
89562.844 42338.461 2.5784101
89564.664 42339.863 2.7411847
89568.273 42341.027 3.4211345
89570.375 42341.793 4.4299803
89576.578 42345.949 3.7842875
89578.219 42347.227 3.24931
89580.797 42347.93 3.1607203
89544.352 42328.375 4.9007359
89557.078 42335.746 3.8605571
89560.07 42339.129 2.4965444
89561.602 42339.602 3.5839362
89563.961 42341.371 2.9731011
89568.266 42343.363 4.0890207
89569.078 42343.539 3.8724875
89574.664 42349.461 4.7302184
89576.617 42349.637 3.3349257
89559.141 42340.699 2.5686679
89559.695 42341.035 3.4649272
89562.922 42343.891 2.3994427
89568.438 42348.043 3.9641213
89570.289 42348.914 4.4774585
89572.719 42349.645 4.8271837
89575.641 42352.727 4.0598989
89557.547 42345.562 3.1220689
89561.125 42345.293 2.2160506
89564.5 42347.574 2.6784086
89566.641 42349.023 2.6106205
89569 42350.766 2.833569
89571.453 42352.434 2.8914127
89574 42354.113 2.9856892
89575.859 42355.609 2.9056506
89555.523 42346.047 2.9568291
89556.484 42346.355 3.3793573
89569.562 42357.48 4.3833346
89571.312 42357.934 4.4162345
89573.578 42358.652 4.3110499
89584.562 42367.199 3.3127251
89585.281 42367.672 2.3574181
89596.141 42371.973 3.2458944
89553.953 42348.426 4.4856224
89554.516 42348.707 3.6831207
89572.859 42362.051 4.2827024
89585.5 42369.133 2.9158816
89553.508 42352.48 2.1984978
89572.148 42364.793 4.5290246
89571.82 42365.777 4.6178193
89570.695 42366.5 4.687809
89571.375 42366.699 4.7019701
89589.695 42380.789 2.5207825
89577.117 42376.348 2.4046664
89578.625 42377.5 3.0664182
89588.969 42382.406 3.6305132
89561.398 42244.367 8.1158438
89562.711 42245.242 8.4264917
89573.922 42252.816 8.4822712
89575.617 42253.957 7.8009815
89578.031 42255.582 7.8237772
89580.18 42257.008 8.8313017
89582.906 42258.844 9.1554766
89584.305 42259.777 9.0152998
89577.891 42255.535 6.9272232
89580.617 42257.348 7.1488533
89583.031 42258.965 7.5675106
89585.477 42260.609 8.0674067
89586.961 42261.625 8.0575972
89589.633 42263.457 6.9998217
89593.828 42266.238 8.3933687
89595.984 42267.723 8.0048695
89596.672 42268.223 7.5445976
89605.133 42279.742 7.6201077
89562.492 42258.246 7.2451277
89564.195 42258.152 6.5686216
89567.141 42261.488 6.8501377
89568.594 42263.25 6.4764547
89561.086 42259.133 6.5105104
89566.977 42263.008 6.5579796
89567.922 42263.566 6.4276342
89531.781 42257.152 6.9570255
89532.75 42256.992 6.8987741
89536.461 42259.582 6.812746
89540.336 42262.57 6.6793547
89544.906 42265.781 6.5563536
89529.258 42257.191 7.571866
89532.18 42259.375 7.7067614
89535.109 42260.328 7.1345205
89537.625 42262.262 6.9597168
89539.203 42264.047 7.1233339
89542.617 42266.672 7.3086252
89544.508 42266.82 6.8061609
89546.992 42269.773 6.7184868
89549.18 42270.957 6.6904182
89551.133 42273.699 6.9464998
89554.516 42275.391 6.1996708
89527.312 42258.75 7.7079735
89530.305 42261.805 7.7158585
89533.344 42264.812 7.8730679
89537.57 42266.336 7.2167501
89540.875 42268.84 7.5702486
89548.062 42273.559 7.3840218
89552.008 42274.578 6.6657133
89553.656 42275.902 6.2018318
89525.039 42262.316 7.5438385
89528.695 42264.301 7.4552193
89532.227 42266.297 7.8132067
89532.336 42268.516 6.7444382
89538.93 42271.125 7.4815426
89545.891 42275.758 7.3068295
89527.797 42266.113 6.8840666
89531.688 42269.148 6.7436743
89535.852 42272.781 6.6070261
89537.039 42272.238 6.9166737
89541.062 42276.879 6.4089565
89544.125 42277.535 7.2835112
89546.492 42281.105 6.3279896
89546.242 42282.285 6.1892204
89538.648 42282.953 6.0241137
89541.398 42284.727 6.713376
89537.938 42284.086 6.0133839
89585 42335.5 6.6194
89569.094 42328.402 5.4188604
89507.781 42292.711 7.9843283
89507.734 42294.207 7.9280138
89511.828 42296.609 7.6238794
89513.805 42297.496 7.0265789
89517.227 42299.051 6.9565802
89518.922 42301.004 7.1313257
89521.609 42302.461 6.848546
89523.789 42304.352 6.9272995
89526.984 42305.762 6.546217
89528.977 42307.914 6.8278704
89531.93 42309.285 6.6528759
89534.141 42311.023 6.4609184
89536.422 42313.191 6.5374289
89539.477 42314.695 7.1853304
89541.289 42316.492 6.4738045
89544.367 42317.641 7.1276312
89546.664 42319.355 6.802227
89548.281 42319.949 6.5213957
89571.203 42336.707 5.309762
89545.977 42322.73 6.6790085
89569.93 42336.734 5.3294468
89544.492 42324.91 7.2249126
89546.305 42325.324 5.6518068
89542.555 42327.773 6.5252781
89541.156 42329.836 6.9831381
89539.781 42331.855 7.4325924
89537.297 42334.625 6.3827629
89554.617 42347.68 5.1162701
89555.945 42348.32 6.0573816
89558.328 42348.848 6.1726942
89553.352 42349.488 5.3934584
89555.242 42348.961 5.654315
89533.867 42339.422 7.2686453
89565.867 42360.582 6.2492456
89564.078 42367.805 6.1706619
89589.109 42382.668 4.7391677
89548.812 42228.863 10.137536
89547.664 42230.273 10.892803
89557.812 42241.895 10.955366
89560.789 42243.891 11.080202
89563.039 42245.402 11.154834
89565.461 42247.051 11.60181
89568.086 42248.809 11.291948
89570.531 42250.457 10.873249
89573 42252.141 10.470104
89575.477 42253.82 10.093699
89578.133 42255.629 10.801477
89580.492 42257.242 12.167648
89582.859 42258.848 11.835403
89586.422 42261.234 11.425085
89584.055 42259.723 11.664014
89585.312 42260.566 11.521842
89587.867 42262.242 11.281025
89590.398 42263.961 11.083267
89592.891 42265.648 10.945367
89595.359 42267.328 10.864409
89596.734 42268.273 10.840096
89527.711 42268.352 9.3684397
89528.297 42268.43 9.2774734
89507.141 42292.176 9.9186373
89509.133 42293.992 9.3223057
89512.102 42295.527 9.5632362
89514.578 42297.566 9.8132734
89516.898 42299.598 9.4228706
89519.164 42300.777 10.105474
89522.055 42302.172 9.4551773
89524.359 42303.926 8.9322958
89526.141 42305.445 10.035085
89529.383 42307.719 10.426353
89532.234 42309.09 9.6831083
89534.445 42310.836 9.1486549
89536.383 42313.027 8.7421799
89543.688 42326.105 8.3790493
89542.586 42327.777 8.85847
89542.883 42329.074 9.0009403
89543.156 42329.965 9.0878725
89540.898 42333.332 10.076344
89537.289 42334.648 8.1476269
89535.258 42338.441 8.9137287
89536.242 42339.098 8.8489571
89533.328 42339.059 9.2819452
89535.594 42341.258 9.217289
89534.953 42342.512 9.4701777
89552.203 42223.605 14.697341
89551.078 42225.301 14.428758
89549.242 42227.754 14.059375
89547.5 42230.141 13.709456
89558.469 42242.297 13.13145
89560.109 42243.406 12.79989
89563.766 42245.926 15.49649
89565.586 42247.129 15.075402
89568.117 42248.84 14.501143
89570.57 42250.5 13.97206
89573.039 42252.172 13.470386
89575.516 42253.863 12.996116
89577.242 42255.051 12.684712
89506.766 42292.441 13.077415
89509.492 42294.188 12.413383
89512.25 42296.539 11.721807
89513.242 42297.812 11.460315
89517.445 42299.082 13.79823
89519.031 42300.973 13.303451
89522.258 42302.691 12.383759
89523.797 42304.469 11.937472
89525.297 42306.477 11.51952
89534.156 42339.594 12.405481
89535.578 42341.176 12.401873
89532.547 42342.879 13.259276
89533.156 42343.766 13.295371
89532.828 42345.52 13.658092
89549.477 42227.969 16.890091
89558.523 42242.375 16.80212
89560.625 42243.781 16.272976
89562.516 42245.051 15.807055
89507.734 42292.562 16.765263
89509.477 42293.762 16.221355
89512.555 42296.578 15.238263
89514.078 42297.426 14.783973
89548.344 42228.34 21.558052
89547.633 42230.02 21.149666
89552.281 42223.555 22.610256
89550.852 42225.543 22.148109
89549.359 42226.578 21.969898
